# .PCD v0.7 - Point Cloud Data file format
VERSION 0.7
FIELDS x y z rgb
SIZE 4 4 4 4
TYPE F F F F
COUNT 1 1 1 1
WIDTH 1343
HEIGHT 1
VIEWPOINT 0 0 0 1 0 0 0
POINTS 1343
DATA ascii
-0.35467109 0.59455788 0.61000025 0
-0.34510824 0.59440398 0.61000031 0
-0.33478355 0.59481049 0.61000031 0
-0.32751033 0.59226298 0.61000019 0
-0.3179808 0.59206498 0.61000007 0
0.32781321 0.5948199 0.61000001 0
0.33495897 0.59491205 0.61000037 0
0.34494582 0.59499991 0.61000043 0
0.35471007 0.59492409 0.61000037 0
0.36491126 0.59497577 0.61000061 0
0.3748644 0.59504598 0.6100961 0
0.38472193 0.5949955 0.61000049 0
0.39494583 0.59503585 0.61000031 0
0.40500799 0.59504396 0.61000025 0
0.41509095 0.5950979 0.61000025 0
0.42482394 0.59503472 0.61006445 0
0.43498579 0.59505022 0.61000025 0
0.44497329 0.59494936 0.61000025 0
0.45251194 0.59477919 0.61000007 0
-0.45342386 0.60963768 0.61000001 0
-0.44499803 0.60470134 0.61053419 0
-0.43496552 0.60495883 0.61000031 0
-0.42511004 0.60505182 0.61000031 0
-0.41504019 0.604922 0.61000031 0
-0.40486532 0.60507035 0.61005992 0
-0.39502874 0.60488397 0.61000073 0
-0.38501936 0.60497034 0.61000144 0
-0.37492046 0.6049394 0.61000043 0
-0.36501095 0.60497832 0.61000049 0
-0.35497847 0.60505021 0.61000043 0
-0.34498006 0.60510325 0.61000049 0
-0.33540249 0.60379523 0.61000037 0
0.33755001 0.60441345 0.61000031 0
0.34547141 0.6052168 0.61000025 0
0.35463649 0.60518205 0.61010391 0
0.36515671 0.6049698 0.61000049 0
0.37524313 0.60467982 0.61001372 0
0.38478294 0.60497719 0.61000395 0
0.39502722 0.60495657 0.61000025 0
0.40495721 0.60500383 0.61000025 0
0.41496402 0.60510266 0.61000025 0
0.4249846 0.60492867 0.61000025 0
0.43494552 0.60504997 0.61000025 0
0.44502869 0.60504842 0.61000025 0
0.45232576 0.60562372 0.61000007 0
-0.45334896 0.61469543 0.61000001 0
-0.44509712 0.61508363 0.61000013 0
-0.43520936 0.6151278 0.61000025 0
-0.42487875 0.6154424 0.61000019 0
-0.4151907 0.61538422 0.61000025 0
-0.40503103 0.61498749 0.61000043 0
-0.39498219 0.61489499 0.61000043 0
-0.38508084 0.61486405 0.61000204 0
-0.37502378 0.61487579 0.61000067 0
-0.36501405 0.61489695 0.61000043 0
-0.3549678 0.61501741 0.61000043 0
-0.34500611 0.61494684 0.61000043 0
-0.33747318 0.61446643 0.61000055 0
0.33267576 0.6107735 0.61000001 0
0.34551752 0.61478031 0.61000025 0
0.35448924 0.61511785 0.61000049 0
0.36476064 0.61475247 0.61000025 0
0.37524408 0.61504734 0.61000025 0
0.38498211 0.61490005 0.61000031 0
0.39572737 0.61438596 0.61000025 0
0.40481558 0.61498874 0.61000025 0
0.41501173 0.6150161 0.61000025 0
0.4249602 0.61501163 0.61000025 0
0.43498215 0.61508751 0.61000025 0
0.4450449 0.61492074 0.61000025 0
0.45243883 0.6144616 0.61000007 0
-0.45304346 0.62508529 0.61000007 0
-0.44502029 0.62497389 0.61000025 0
-0.43491077 0.62489295 0.61000329 0
-0.42501825 0.62500823 0.61000025 0
-0.41501433 0.62497705 0.61000025 0
-0.40520573 0.62498289 0.61000025 0
-0.39514732 0.62480879 0.61000031 0
-0.384976 0.62502587 0.61000043 0
-0.3749164 0.62466919 0.61018974 0
-0.36503947 0.62498695 0.61000049 0
-0.35504109 0.62490827 0.61000049 0
-0.34530181 0.62478578 0.61000049 0
-0.33757514 0.62476677 0.61000007 0
0.33732229 0.62437737 0.61000001 0
0.34710684 0.62503904 0.61000019 0
0.35467348 0.62472469 0.61000019 0
0.36447284 0.62493199 0.61000109 0
0.37535596 0.62539476 0.61047322 0
0.38498205 0.62501538 0.61000025 0
0.39679673 0.62499571 0.61013067 0
0.40509838 0.62508744 0.61000025 0
0.41502509 0.6249845 0.61000025 0
0.4249382 0.625045 0.61000025 0
0.43506408 0.62494898 0.61001718 0
0.4449901 0.62499064 0.61000025 0
0.45137334 0.62415987 0.61000001 0
-0.45318881 0.63513726 0.61000007 0
-0.44492283 0.63498527 0.61000025 0
-0.43498516 0.63508981 0.61000019 0
-0.42508763 0.63507402 0.61000025 0
-0.41500431 0.63516498 0.61000025 0
-0.40490156 0.63499099 0.61000085 0
-0.3949717 0.63483983 0.61000031 0
-0.38549227 0.63487303 0.61000031 0
-0.3750841 0.63496 0.61000049 0
-0.36496848 0.63497007 0.61000049 0
-0.35500747 0.63502914 0.61000043 0
-0.3474001 0.63421082 0.61000043 0
-0.33926603 0.63360369 0.61000001 0
0.34492999 0.63496578 0.61000001 0
0.35537061 0.63501376 0.61000013 0
0.36521295 0.63474119 0.61000746 0
0.37521374 0.63515437 0.61000013 0
0.38510555 0.63507563 0.61000013 0
0.3961879 0.63364756 0.61000025 0
0.40501684 0.63508409 0.61000025 0
0.4150483 0.63487577 0.61000025 0
0.42495194 0.63510072 0.61000025 0
0.43495798 0.6349951 0.61000025 0
0.44494337 0.63506544 0.61000019 0
-0.45251587 0.64496207 0.61000007 0
-0.44502324 0.64478755 0.61000031 0
-0.43519545 0.64497912 0.6100046 0
-0.42497808 0.64486825 0.61000341 0
-0.41493028 0.64498031 0.61000025 0
-0.40504503 0.64496887 0.61000031 0
-0.39526641 0.6450178 0.61040115 0
-0.38502821 0.64525449 0.61000031 0
-0.3749454 0.64546382 0.61000037 0
-0.36508235 0.6450268 0.61000049 0
-0.35596967 0.64431202 0.61000049 0
-0.3470476 0.64271647 0.61000001 0
0.34784451 0.64485633 0.61000001 0
0.3565698 0.64496797 0.61000013 0
0.36542511 0.64481127 0.61115134 0
0.3748543 0.64511144 0.61000013 0
0.38490024 0.64512384 0.61002368 0
0.39486724 0.64519209 0.61000013 0
0.40642756 0.64369571 0.61000013 0
0.41573474 0.6443646 0.61000025 0
0.42492762 0.64496547 0.61000025 0
0.43495154 0.6449064 0.61000031 0
0.44497609 0.64488453 0.61000025 0
-0.45266145 0.65516901 0.61000013 0
-0.44506541 0.65508997 0.61000025 0
-0.43493223 0.65506983 0.61002743 0
-0.4249987 0.65513831 0.61010343 0
-0.41507107 0.65517122 0.61000037 0
-0.40497097 0.654939 0.61000067 0
-0.39504808 0.65506953 0.61000025 0
-0.3850852 0.65533346 0.61000031 0
-0.37503141 0.65549225 0.61000037 0
-0.36534667 0.6554845 0.61000395 0
-0.35763106 0.65489852 0.61000031 0
0.35725066 0.65490252 0.61000651 0
0.36546758 0.65463418 0.61004835 0
0.37482637 0.65486515 0.61000007 0
0.38509655 0.65494573 0.61000013 0
0.39520723 0.65506268 0.61000013 0
0.40507227 0.65495157 0.61001062 0
0.41491446 0.65495527 0.61000013 0
0.42625731 0.65373278 0.61001182 0
0.43551406 0.65440035 0.61000031 0
0.44501504 0.65490597 0.61000025 0
0.45206445 0.65874863 0.61000001 0
-0.45226988 0.66234052 0.61000013 0
-0.44534105 0.6657908 0.61048603 0
-0.43492621 0.66507453 0.61000025 0
-0.42513019 0.66518396 0.61000025 0
-0.41503102 0.66492456 0.61000025 0
-0.40492931 0.66495001 0.61000025 0
-0.39491159 0.66505915 0.61000031 0
-0.3850072 0.66505623 0.61000025 0
-0.37511501 0.66743612 0.61000007 0
-0.36441767 0.66506624 0.61000007 0
-0.35745597 0.66331214 0.61000001 0
0.35815564 0.66347247 0.61000001 0
0.36593497 0.66382873 0.61000001 0
0.375029 0.66450971 0.61000001 0
0.38518775 0.66483986 0.61000025 0
0.39500427 0.66499311 0.61000013 0
0.40477982 0.66485101 0.61000007 0
0.41509977 0.66502964 0.61000013 0
0.42334282 0.66505343 0.61043811 0
0.43505564 0.66504133 0.61000013 0
0.44483775 0.66511405 0.61000013 0
0.45133665 0.66445303 0.61000001 0
-0.44494048 0.67497981 0.61000025 0
-0.43681204 0.67254472 0.61011159 0
-0.42512664 0.67496884 0.61000025 0
-0.41342616 0.6773082 0.61000013 0
-0.40530381 0.67684811 0.61000007 0
-0.39517394 0.67477125 0.61000007 0
-0.3865639 0.67301828 0.61182845 0
-0.37294531 0.6737749 0.61007077 0
-0.36570156 0.67457145 0.61000001 0
-0.35889339 0.67252713 0.61000001 0
0.36590484 0.67324919 0.61000007 0
0.37504169 0.6747514 0.61000013 0
0.3866269 0.67350292 0.61000007 0
0.39507169 0.67442429 0.61000001 0
0.4065378 0.67408699 0.61000007 0
0.4151575 0.67472541 0.61000001 0
0.42494982 0.67508149 0.61000007 0
0.43479332 0.67492086 0.61000013 0
0.44517857 0.67514747 0.61000013 0
0.45250818 0.67639738 0.61000001 0
-0.45498928 0.6875819 0.61000001 0
-0.44435978 0.68786031 0.61000013 0
-0.43600374 0.68494451 0.61193138 0
-0.42558926 0.68606532 0.61075646 0
-0.41499263 0.68486327 0.61002046 0
-0.40416405 0.68584061 0.61000013 0
-0.39496285 0.68546689 0.61000013 0
-0.3851189 0.68492234 0.61000013 0
-0.3745932 0.68572962 0.61000013 0
-0.36606827 0.68429869 0.61000007 0
0.3776179 0.68352866 0.61000013 0
0.38492993 0.68498564 0.61000013 0
0.39485884 0.68502569 0.61000013 0
0.40495363 0.6851638 0.61000013 0
0.41660726 0.68446422 0.61000001 0
0.42466703 0.68378031 0.61001575 0
0.43475786 0.6845147 0.61000001 0
0.44458976 0.68459404 0.61000007 0
0.45265186 0.68466622 0.61000007 0
-0.45368096 0.69508016 0.61000001 0
-0.44553712 0.69560766 0.61000013 0
-0.43458676 0.69555366 0.61000007 0
-0.42545533 0.69500828 0.61000013 0
-0.41491032 0.69451171 0.61000001 0
-0.4042114 0.69557279 0.61093849 0
-0.39500377 0.69491732 0.61000019 0
-0.3848978 0.69507205 0.61000019 0
-0.37640625 0.69390833 0.61000019 0
0.37743822 0.69301581 0.61000007 0
0.38674667 0.69501609 0.61000013 0
0.39503857 0.69501829 0.61000013 0
0.40511173 0.69494933 0.61000013 0
0.41698599 0.69293714 0.61000007 0
0.42494684 0.69507241 0.61000013 0
0.43490559 0.69489932 0.61000013 0
0.44656253 0.69397527 0.61004871 0
0.45190784 0.69338185 0.61000001 0
-0.45414931 0.70545691 0.61000001 0
-0.44521886 0.7044543 0.61151338 0
-0.43480888 0.70545566 0.61000013 0
-0.42496037 0.7049607 0.61006606 0
-0.41519767 0.70493948 0.61000013 0
-0.40499178 0.70489156 0.61000013 0
-0.39500132 0.7050426 0.61000019 0
-0.38613462 0.70426702 0.61000019 0
-0.37749636 0.70402318 0.61000001 0
0.38705599 0.7023828 0.61000001 0
0.39580679 0.70417833 0.61000019 0
0.40575287 0.70326352 0.61091924 0
0.4149963 0.70502925 0.61000013 0
0.42500335 0.70516139 0.61000013 0
0.4351368 0.70487773 0.61000013 0
0.44497022 0.70498616 0.61000013 0
0.45282656 0.70707065 0.61000001 0
-0.45263144 0.71537757 0.61000007 0
-0.44497442 0.71499676 0.61000013 0
-0.43506789 0.7150104 0.61000013 0
-0.42498797 0.71476525 0.61000013 0
-0.41508031 0.71501529 0.61000013 0
-0.40494236 0.71501338 0.61000019 0
-0.39499742 0.71501017 0.61000013 0
-0.38717926 0.71245682 0.61000043 0
0.39794785 0.71249115 0.61000025 0
0.40557471 0.71521091 0.61000019 0
0.41497508 0.71477282 0.61000013 0
0.4247621 0.71457332 0.61007369 0
0.43540892 0.71499777 0.61000013 0
0.44502035 0.71474779 0.61000013 0
0.45254576 0.71392345 0.61000001 0
-0.44501662 0.72505248 0.61000019 0
-0.43511933 0.72505301 0.61000013 0
-0.42506093 0.72501928 0.61000019 0
-0.41491747 0.72491008 0.61000019 0
-0.40507537 0.72495258 0.61000019 0
-0.39718962 0.72504491 0.61000019 0
0.40630522 0.72379446 0.61000031 0
0.41506115 0.72507149 0.61000025 0
0.42500287 0.72474557 0.61000025 0
0.43513259 0.72484583 0.61000019 0
0.44488773 0.72450244 0.61000025 0
0.45420775 0.72417152 0.61000001 0
-0.44506842 0.73501962 0.61000019 0
-0.43496379 0.73507553 0.61000019 0
-0.4250657 0.73496282 0.61000019 0
-0.41509143 0.73504573 0.61000025 0
-0.40500951 0.73494649 0.61000025 0
-0.39773393 0.73279846 0.61000049 0
0.4076122 0.73231721 0.61000043 0
0.41532344 0.73519558 0.61000025 0
0.42502204 0.7349292 0.61000329 0
0.43504873 0.73505747 0.61000025 0
0.44514641 0.73501933 0.61000031 0
0.45343018 0.73562777 0.61000001 0
-0.44490829 0.74500167 0.61000216 0
-0.43505716 0.74504578 0.61000311 0
-0.42494923 0.74492681 0.61000019 0
-0.41498169 0.74503809 0.61000025 0
-0.40522957 0.7449857 0.61000025 0
-0.39751047 0.74589598 0.61000001 0
0.40781784 0.7435177 0.61000013 0
0.41575772 0.74349952 0.61119807 0
0.42505997 0.74488962 0.61000025 0
0.4350273 0.74496168 0.61000025 0
0.44485849 0.74508744 0.61000031 0
0.45400491 0.74445152 0.61000001 0
-0.44507399 0.75506836 0.61000025 0
-0.43502268 0.75491703 0.61000025 0
-0.42498454 0.75493276 0.61000019 0
-0.41501766 0.7550317 0.61000025 0
-0.40672866 0.7546609 0.61000031 0
-0.28177249 0.75734842 0.61730206 0
-0.27510121 0.75765514 0.61077398 0
0.2833159 0.7577188 0.61772108 0
0.40858442 0.75353873 0.61000019 0
0.41635102 0.75462037 0.61000031 0
0.42497483 0.75500065 0.61000025 0
0.43504828 0.75489998 0.61000025 0
0.44498858 0.75510055 0.61000109 0
0.45342061 0.75408655 0.61000001 0
-0.44484538 0.76498348 0.61000031 0
-0.43495092 0.76510036 0.61000037 0
-0.42490745 0.76504266 0.6100561 0
-0.41499859 0.7649591 0.61000234 0
-0.4068782 0.76493764 0.61000037 0
-0.28164357 0.76508087 0.61471736 0
-0.27488872 0.76507896 0.61077648 0
-0.26554281 0.7661891 0.61077422 0
-0.25511575 0.76757723 0.6107741 0
-0.24506374 0.76741552 0.61077422 0
-0.23497342 0.76755005 0.6107741 0
-0.22495866 0.76755089 0.6107735 0
-0.21500684 0.76738757 0.6107735 0
-0.20495592 0.76750189 0.61077338 0
-0.19498408 0.76751208 0.6107735 0
-0.18496245 0.76748866 0.6107735 0
-0.1750703 0.76746082 0.6107735 0
-0.16516554 0.7674647 0.6107735 0
-0.15435334 0.76632965 0.61077303 0
-0.14497933 0.76541644 0.61077303 0
-0.13559738 0.76628894 0.61077303 0
-0.12515779 0.76750374 0.61077303 0
-0.11501474 0.76746678 0.61077303 0
-0.10505611 0.76750231 0.61077291 0
-0.094942294 0.76755977 0.61077309 0
-0.085060947 0.76754719 0.61077279 0
-0.074901216 0.76759404 0.61077315 0
-0.066132799 0.76734734 0.61077297 0
-0.055021215 0.7676146 0.61077309 0
-0.044898033 0.76744175 0.61077315 0
-0.035460435 0.76752186 0.61077315 0
-0.025371926 0.76749235 0.61077327 0
-0.015065332 0.767488 0.61077309 0
-0.0064802733 0.76761019 0.61077297 0
0.0050945384 0.76750684 0.61077267 0
0.016252548 0.7676692 0.61077261 0
0.025019789 0.76736879 0.61077243 0
0.034930885 0.76760465 0.61077231 0
0.044989455 0.76743007 0.61077237 0
0.054198384 0.76763362 0.61077231 0
0.06533777 0.76749736 0.61077243 0
0.074895278 0.76766038 0.61078191 0
0.084876537 0.76742178 0.61077249 0
0.093862891 0.76763535 0.61077261 0
0.10506945 0.76746565 0.61077309 0
0.11497539 0.76768708 0.61077309 0
0.12497023 0.76735657 0.61077291 0
0.13501221 0.76743704 0.61077291 0
0.14633277 0.76759154 0.61077309 0
0.15373665 0.76757759 0.61077309 0
0.16504057 0.7676031 0.61077303 0
0.17642274 0.76765978 0.61077309 0
0.1849898 0.76742506 0.610811 0
0.19517775 0.76755238 0.61077291 0
0.20499419 0.76750392 0.61077285 0
0.21499872 0.76757354 0.61077315 0
0.22500861 0.76751918 0.61077315 0
0.23506762 0.7674244 0.61078769 0
0.24503122 0.76762295 0.61077327 0
0.25499094 0.76744342 0.61077338 0
0.26500961 0.76757193 0.61077327 0
0.27518702 0.76514614 0.61077327 0
0.28308022 0.76438153 0.61645466 0
0.40869978 0.76839304 0.61000013 0
0.41390836 0.76701069 0.610524 0
0.4248355 0.76540244 0.61000025 0
0.43504047 0.76476216 0.61000049 0
0.44468898 0.76508772 0.61000031 0
0.45275363 0.76623601 0.61000001 0
-0.4450449 0.7751711 0.61000031 0
-0.43494859 0.77490175 0.61000037 0
-0.42500091 0.77488518 0.61000037 0
-0.41518283 0.77518129 0.61000037 0
-0.40670669 0.77489561 0.61000061 0
-0.2816276 0.77493328 0.61466414 0
-0.2750347 0.77498478 0.61077422 0
-0.26502782 0.77499962 0.61077434 0
-0.25501201 0.775047 0.6107744 0
-0.24499929 0.77501583 0.6107744 0
-0.23505299 0.77489316 0.6107744 0
-0.22503071 0.77506793 0.61077338 0
-0.21499948 0.7750082 0.61077338 0
-0.20503417 0.77496326 0.61077338 0
-0.19504409 0.77501518 0.61078101 0
-0.1849312 0.77497512 0.61077338 0
-0.17508364 0.77494681 0.61077482 0
-0.16512737 0.7750634 0.61077332 0
-0.1543131 0.77435005 0.6107738 0
-0.14499481 0.77501184 0.61077315 0
-0.13498864 0.77504188 0.61077315 0
-0.12496525 0.77496046 0.61077315 0
-0.11500125 0.77501613 0.61077309 0
-0.10501293 0.77501827 0.61077303 0
-0.095033862 0.77497941 0.61077297 0
-0.084997833 0.77501053 0.61077291 0
-0.074400678 0.77441591 0.61077327 0
-0.064803809 0.77496272 0.61077338 0
-0.054804623 0.77504504 0.61077338 0
-0.044933368 0.77494717 0.61077338 0
-0.035069309 0.77505028 0.61077332 0
-0.025065605 0.77498388 0.61077332 0
-0.015001655 0.77499896 0.61077332 0
-0.0050374214 0.77492231 0.61077327 0
0.0056781676 0.77429533 0.61077249 0
0.014941757 0.77508974 0.61077237 0
0.024946196 0.77500612 0.61077237 0
0.035074692 0.77488601 0.61077237 0
0.044905465 0.77507651 0.61077237 0
0.055019371 0.77489626 0.61077231 0
0.06499739 0.77510661 0.61077237 0
0.074998453 0.77487838 0.61077231 0
0.084896393 0.77504361 0.61077249 0
0.096237466 0.77369249 0.61077273 0
0.10493135 0.7747739 0.61077297 0
0.11501862 0.7750473 0.61077297 0
0.12497048 0.77515787 0.61077297 0
0.13497527 0.77480167 0.61077297 0
0.14560819 0.7742039 0.61077303 0
0.15501811 0.77512556 0.61077297 0
0.16497615 0.77495509 0.61077291 0
0.17489669 0.77502477 0.61077291 0
0.1851102 0.77497733 0.61077273 0
0.19502664 0.77501714 0.61077273 0
0.20625974 0.77358371 0.61077303 0
0.2149525 0.77496517 0.61077327 0
0.22500487 0.77505875 0.61077338 0
0.23494382 0.775006 0.61077338 0
0.24502268 0.77500218 0.61077338 0
0.25500476 0.77501512 0.61077327 0
0.26509416 0.77501857 0.61077332 0
0.27503651 0.77501261 0.61077332 0
0.28268227 0.77487719 0.61454058 0
0.40870595 0.77740616 0.61000013 0
0.41552234 0.7745319 0.61000025 0
0.4250814 0.77532607 0.61000031 0
0.43513626 0.77482414 0.6100533 0
0.44503394 0.77489626 0.61000025 0
0.45403069 0.77452016 0.61000001 0
-0.44484767 0.78501308 0.61000037 0
-0.43497452 0.78492272 0.61000037 0
-0.42711306 0.78316915 0.61166126 0
-0.4150005 0.7851156 0.61000043 0
-0.40673378 0.78494924 0.61000043 0
-0.28165755 0.78477448 0.61451852 0
-0.27500901 0.78496468 0.61077464 0
-0.26499528 0.78503644 0.6107747 0
-0.25495163 0.78504324 0.61077434 0
-0.24497612 0.78491342 0.6107744 0
-0.23497853 0.78496724 0.6107744 0
-0.22495726 0.78505057 0.61077338 0
-0.2150654 0.78504246 0.6107735 0
-0.20502734 0.78498352 0.61077338 0
-0.19504291 0.78499466 0.61077338 0
-0.18501404 0.78497857 0.61077338 0
-0.17499831 0.78505152 0.61077338 0
-0.16498177 0.78506434 0.61077338 0
-0.15338011 0.78503722 0.61077315 0
-0.14502069 0.78495848 0.61077321 0
-0.13501395 0.78498369 0.61077321 0
-0.12505297 0.7849521 0.61077321 0
-0.11502367 0.78507465 0.61077327 0
-0.10499509 0.78494763 0.61077303 0
-0.094971359 0.78498268 0.61077297 0
-0.08499942 0.78505909 0.61077285 0
-0.073806882 0.78361154 0.61077321 0
-0.065114811 0.78507316 0.61077344 0
-0.055058468 0.78497016 0.61077344 0
-0.045169197 0.78496355 0.61079806 0
-0.034893434 0.78493893 0.61077338 0
-0.024994781 0.78502834 0.61078018 0
-0.015027903 0.78497273 0.61077338 0
-0.0050105411 0.78501737 0.61077332 0
0.0062406878 0.78386831 0.61077279 0
0.015061903 0.78486758 0.61077243 0
0.024900487 0.78507125 0.61077243 0
0.034922291 0.78498924 0.61077243 0
0.044983461 0.78495169 0.61077237 0
0.055015802 0.78504264 0.61077237 0
0.065038174 0.78501141 0.61077237 0
0.075087383 0.78499687 0.61077237 0
0.085083924 0.78500986 0.61077237 0
0.094982252 0.78498328 0.61077237 0
0.10623322 0.78366983 0.61077273 0
0.11505271 0.78481483 0.61077297 0
0.12500314 0.78491294 0.61077297 0
0.1350055 0.78511393 0.61077422 0
0.14505357 0.7851091 0.61077297 0
0.15557401 0.78428972 0.61077279 0
0.16501877 0.78507888 0.61077273 0
0.17500016 0.78493941 0.61077267 0
0.18498024 0.78505659 0.61077344 0
0.19497375 0.78501529 0.61077267 0
0.20501709 0.78501576 0.61077267 0
0.21645334 0.78386009 0.61077303 0
0.22506396 0.78498709 0.61078161 0
0.23502871 0.78508234 0.61077338 0
0.24506097 0.7849772 0.61077332 0
0.25501555 0.78504676 0.61077332 0
0.26505589 0.78496635 0.61077338 0
0.27494323 0.7850436 0.61077338 0
0.28265861 0.78480422 0.61449587 0
0.40742034 0.78497851 0.61000025 0
0.4154923 0.78449553 0.61000031 0
0.42503682 0.7853936 0.61000031 0
0.43494844 0.78484201 0.61000055 0
0.44498244 0.7847476 0.61000538 0
0.45466316 0.78500807 0.61000001 0
-0.44497871 0.79483205 0.61000037 0
-0.43508688 0.79513085 0.61000037 0
-0.42490792 0.79506534 0.61003619 0
-0.41485319 0.79480404 0.61000049 0
-0.40711251 0.79516679 0.61000055 0
-0.28170305 0.7952221 0.61438382 0
-0.27493811 0.79502755 0.61077434 0
-0.26500353 0.79494309 0.61077422 0
-0.25501359 0.79489201 0.6107744 0
-0.24513909 0.79504192 0.6107744 0
-0.2349848 0.79499274 0.6107744 0
-0.22330947 0.79509419 0.61077356 0
-0.21494548 0.7949723 0.61077344 0
-0.20496598 0.79503959 0.61077338 0
-0.19505423 0.7949518 0.61077338 0
-0.18492535 0.79493994 0.61077338 0
-0.17497919 0.79511118 0.61077338 0
-0.16494386 0.7949909 0.61077344 0
-0.15492439 0.79506576 0.61077344 0
-0.14503756 0.79491282 0.61077321 0
-0.13500588 0.79508895 0.61078608 0
-0.12497337 0.79489052 0.61077321 0
-0.11500709 0.79505628 0.61077309 0
-0.10500922 0.79498732 0.61077303 0
-0.09496776 0.79493463 0.61077297 0
-0.085016198 0.79496497 0.61077291 0
-0.074953049 0.7950753 0.61077285 0
-0.065127954 0.79494947 0.61077344 0
-0.05512917 0.79504013 0.61077344 0
-0.044991333 0.79497397 0.61077619 0
-0.035111923 0.79496419 0.61077344 0
-0.025029108 0.79493946 0.61077344 0
-0.015014497 0.79495078 0.61077338 0
-0.0049680872 0.79509705 0.61077338 0
0.0049756072 0.79497564 0.61077338 0
0.016583622 0.79520798 0.61077261 0
0.0251614 0.79491663 0.61077243 0
0.035062078 0.79495454 0.61077237 0
0.044963874 0.79504365 0.61077929 0
0.054958172 0.79494703 0.61077243 0
0.065000966 0.7950474 0.61077237 0
0.075007409 0.7950803 0.61077237 0
0.084969386 0.79493362 0.61077237 0
0.095009364 0.79499376 0.61077237 0
0.10509709 0.79499185 0.61077237 0
0.11630111 0.79377526 0.61077273 0
0.1249726 0.79511333 0.61077291 0
0.13502157 0.79489768 0.61077285 0
0.14496689 0.79494995 0.61077279 0
0.15496352 0.79482919 0.61077273 0
0.16559367 0.79422939 0.61077267 0
0.17499706 0.79506522 0.61077261 0
0.18500024 0.79499269 0.61077261 0
0.19503668 0.79496133 0.61077249 0
0.20486188 0.79505694 0.61077249 0
0.21495767 0.79504794 0.61077529 0
0.22623785 0.79386532 0.61077297 0
0.23502681 0.79498875 0.61077338 0
0.24499448 0.79494047 0.61077338 0
0.25503093 0.7949819 0.61077338 0
0.26503447 0.79503328 0.61077344 0
0.2748526 0.7949363 0.61100519 0
0.28272557 0.79494524 0.61470354 0
0.40839753 0.7956109 0.61000007 0
0.41619739 0.79583466 0.61000037 0
0.42734376 0.793064 0.61218047 0
0.43485945 0.79498595 0.61000025 0
0.44484925 0.79454231 0.61000037 0
0.45301604 0.79610604 0.61000001 0
-0.44509974 0.80507118 0.61000043 0
-0.43494624 0.80516481 0.61000079 0
-0.42495316 0.80496752 0.61000049 0
-0.41497761 0.80474889 0.61000049 0
-0.40725055 0.80544138 0.61000055 0
-0.28168446 0.8049196 0.61477137 0
-0.27496427 0.80505294 0.61077422 0
-0.26488623 0.80494422 0.61077434 0
-0.25500491 0.80503768 0.6107744 0
-0.24491718 0.80487186 0.6107744 0
-0.23499779 0.80505693 0.6107744 0
-0.22331768 0.80504435 0.61077356 0
-0.21502867 0.80497712 0.61077487 0
-0.20504394 0.80495322 0.61077338 0
-0.19492368 0.80495453 0.61077344 0
-0.1849373 0.80491179 0.61077338 0
-0.17492698 0.80511063 0.61077344 0
-0.16494766 0.80495203 0.61077368 0
-0.15505216 0.80511284 0.61077362 0
-0.14424588 0.8043074 0.61077321 0
-0.13497476 0.80507106 0.61077321 0
-0.12500039 0.80490017 0.61077321 0
-0.1149957 0.80506915 0.61077315 0
-0.10496817 0.80494404 0.61080194 0
-0.095038809 0.80504304 0.61077297 0
-0.085102625 0.80493516 0.61077291 0
-0.075096205 0.80508518 0.61077291 0
-0.063409798 0.80501699 0.61077338 0
-0.054993313 0.80500573 0.61077362 0
-0.044807751 0.80496848 0.61077344 0
-0.035032738 0.80492991 0.61077344 0
-0.024995189 0.80491239 0.61077344 0
-0.015063843 0.80496836 0.61077344 0
-0.0049254065 0.80493289 0.61077344 0
0.005015214 0.80501032 0.61077368 0
0.01508866 0.80505514 0.61077344 0
0.024874896 0.80501115 0.61077243 0
0.034973525 0.80500966 0.61077243 0
0.045002777 0.80497855 0.61077237 0
0.054994173 0.80495805 0.61077243 0
0.064896412 0.80504113 0.61077243 0
0.074958757 0.80502307 0.61077243 0
0.084949039 0.80500555 0.61077845 0
0.094989046 0.80501091 0.61077237 0
0.10496472 0.8049835 0.61077243 0
0.11494036 0.80498439 0.61077237 0
0.12568732 0.80428815 0.61077267 0
0.13499172 0.80481851 0.61077273 0
0.14501694 0.80522108 0.61077273 0
0.15528537 0.80454445 0.61152041 0
0.16626312 0.80370164 0.61077261 0
0.1750094 0.80503017 0.61077249 0
0.18501352 0.80492181 0.61077243 0
0.19498423 0.80496943 0.61077231 0
0.20508352 0.80486977 0.61077225 0
0.21499106 0.80510741 0.61077225 0
0.22497396 0.80508316 0.61077237 0
0.23612872 0.8037473 0.61077297 0
0.2449269 0.80497706 0.6107735 0
0.25502706 0.80497581 0.61077356 0
0.26493931 0.8049798 0.61077362 0
0.27486047 0.80502999 0.6107735 0
0.28264102 0.80484629 0.61424553 0
0.40819305 0.80382895 0.61000013 0
0.41626421 0.80433077 0.61000031 0
0.42504057 0.8053689 0.61000025 0
0.43502587 0.80493385 0.61000031 0
0.44503069 0.80480891 0.61000031 0
0.45209605 0.80266535 0.61000001 0
-0.44506001 0.81504881 0.61000049 0
-0.43502158 0.81511366 0.61000055 0
-0.42503899 0.81496012 0.61000055 0
-0.41511911 0.81499994 0.61000055 0
-0.40729058 0.81539875 0.61000055 0
-0.28183347 0.81516039 0.61473209 0
-0.27507401 0.81489575 0.61077428 0
-0.26515281 0.81503451 0.6107744 0
-0.25496608 0.81490672 0.6107744 0
-0.24501809 0.81507266 0.6107744 0
-0.23497394 0.8149091 0.61077452 0
-0.22503123 0.81515014 0.6107744 0
-0.21502309 0.81502753 0.61077344 0
-0.20505932 0.81491393 0.61077344 0
-0.19495663 0.81505233 0.61077368 0
-0.18494466 0.81491739 0.61077344 0
-0.17497773 0.81507587 0.61077368 0
-0.16499655 0.81500882 0.61077374 0
-0.15498824 0.81494296 0.61077654 0
-0.14330477 0.81499845 0.61077332 0
-0.13494906 0.8150118 0.61077321 0
-0.12499397 0.81495792 0.61077321 0
-0.11504643 0.81507653 0.61077315 0
-0.10494757 0.81494552 0.61077303 0
-0.095068157 0.81499738 0.61077297 0
-0.08496891 0.81499243 0.61077297 0
-0.075072408 0.81501216 0.61077291 0
-0.065102629 0.81494486 0.61077291 0
-0.054932397 0.81497443 0.61077487 0
-0.045098696 0.81501406 0.61077368 0
-0.03497972 0.81502599 0.61077392 0
-0.024970131 0.8149873 0.61077362 0
-0.015061776 0.81498605 0.61077631 0
-0.0050276844 0.81495512 0.61077368 0
0.0050421152 0.81503981 0.61077362 0
0.014861549 0.81504279 0.61077362 0
0.02610163 0.81366074 0.61085027 0
0.035075154 0.81502533 0.61077249 0
0.045042377 0.81500131 0.61077243 0
0.055021554 0.81500101 0.61077243 0
0.065033749 0.81504333 0.61077243 0
0.075008169 0.81490898 0.61077243 0
0.084964193 0.81507319 0.61077487 0
0.095027298 0.81497973 0.61077243 0
0.10500914 0.81500167 0.61077243 0
0.11497951 0.81487769 0.61077231 0
0.12499086 0.81506193 0.61077231 0
0.13562487 0.81433105 0.61077255 0
0.14494114 0.81491965 0.61077261 0
0.15503286 0.81481302 0.61077255 0
0.16499473 0.81489646 0.61077255 0
0.17632115 0.81388944 0.61077237 0
0.18503723 0.81494206 0.61077279 0
0.19495387 0.81499547 0.61077225 0
0.20494755 0.81494701 0.61077225 0
0.21497945 0.81500196 0.61077213 0
0.22514448 0.81506079 0.61077213 0
0.23513731 0.81487179 0.61078775 0
0.24632671 0.81387067 0.61077303 0
0.25493246 0.81499207 0.61077368 0
0.2649309 0.81495726 0.61077362 0
0.27500573 0.81497794 0.61077583 0
0.28259397 0.81505919 0.61440557 0
0.40551722 0.81711358 0.61000001 0
0.41479665 0.81474173 0.61000025 0
0.42495745 0.81593478 0.61000025 0
0.43506703 0.81516284 0.61000043 0
0.44425231 0.81459963 0.61000025 0
-0.44509703 0.82507402 0.61000055 0
-0.43501741 0.82493991 0.61000055 0
-0.42508769 0.82480985 0.61000055 0
-0.41647539 0.82316029 0.61100268 0
-0.40708959 0.82536674 0.61000061 0
-0.28171378 0.82482445 0.61450565 0
-0.27504832 0.82504082 0.61077434 0
-0.26488638 0.82476348 0.61077434 0
-0.25498655 0.82517928 0.6107744 0
-0.24494167 0.82494318 0.6107744 0
-0.23491016 0.82500935 0.6107744 0
-0.22500472 0.82503146 0.61080629 0
-0.21505003 0.82490873 0.61077368 0
-0.20492211 0.82495022 0.61077368 0
-0.19493835 0.82503337 0.61077374 0
-0.18503232 0.82505095 0.61077374 0
-0.17492484 0.82496595 0.6107738 0
-0.16502059 0.82507122 0.6107738 0
-0.15503082 0.82493794 0.61077386 0
-0.14499021 0.82500744 0.6107747 0
-0.13500495 0.82496202 0.61077321 0
-0.12502638 0.82502109 0.61083972 0
-0.11499791 0.82489192 0.61077309 0
-0.10503624 0.82503378 0.61077303 0
-0.094961137 0.82504815 0.61077297 0
-0.084943272 0.82498199 0.61077297 0
-0.074974284 0.82500267 0.61077291 0
-0.064959466 0.82499588 0.61077291 0
-0.053318489 0.82504004 0.6107735 0
-0.045023333 0.82501727 0.61077374 0
-0.035049107 0.82495868 0.61077374 0
-0.024994055 0.8249979 0.61077374 0
-0.014964992 0.82495105 0.61077374 0
-0.0049937209 0.82509583 0.61077374 0
0.0049660066 0.8249858 0.61077368 0
0.014978202 0.82499158 0.61077368 0
0.025015036 0.8250227 0.61077368 0
0.035545204 0.82444316 0.61077255 0
0.044975571 0.82496804 0.61077243 0
0.055018406 0.82503635 0.61077243 0
0.065000042 0.8250373 0.61077875 0
0.074954927 0.82483256 0.61077243 0
0.084915467 0.82511652 0.61077243 0
0.094995007 0.82496631 0.61077243 0
0.10501841 0.82503909 0.61077243 0
0.11502469 0.82498342 0.61077237 0
0.12495708 0.82496107 0.61077243 0
0.13494483 0.82494581 0.61077243 0
0.14501031 0.82491267 0.61077255 0
0.15496609 0.82487202 0.61077255 0
0.16506816 0.82507592 0.61077255 0
0.17497781 0.82478774 0.61077249 0
0.18614383 0.82357895 0.61077231 0
0.19507 0.82490426 0.61077213 0
0.20501499 0.8249709 0.61077213 0
0.21494694 0.82498235 0.61077201 0
0.22488582 0.82501525 0.61077201 0
0.23489296 0.82497627 0.61077195 0
0.24488847 0.82499903 0.61077183 0
0.25633866 0.82385361 0.61077297 0
0.26507187 0.82509249 0.61101341 0
0.27500471 0.82488286 0.61077362 0
0.28260723 0.825082 0.61457378 0
0.40632424 0.82463878 0.61000007 0
0.41494673 0.82465202 0.61000025 0
0.42433348 0.82560432 0.61000019 0
0.43506712 0.82564604 0.61000478 0
0.44285893 0.82531244 0.61000031 0
0.45083544 0.82777804 0.61000001 0
-0.44508594 0.83499718 0.61000055 0
-0.4351359 0.83493882 0.61000055 0
-0.42493072 0.83486366 0.61000055 0
-0.41490418 0.83502614 0.61000061 0
-0.40720114 0.83540076 0.61000055 0
-0.39798746 0.83836031 0.61000001 0
-0.28174466 0.83505285 0.61444438 0
-0.27506542 0.83486062 0.61077434 0
-0.26495999 0.83503675 0.6107744 0
-0.25510144 0.83510172 0.6107744 0
-0.24494307 0.83485901 0.61081928 0
-0.23509231 0.83520287 0.61077452 0
-0.22498842 0.83504879 0.61077446 0
-0.21433169 0.8356539 0.6107738 0
-0.20496204 0.83496916 0.61077464 0
-0.19509116 0.83503991 0.6107738 0
-0.18497601 0.83500415 0.61077392 0
-0.17498425 0.834988 0.61077392 0
-0.1650131 0.83505934 0.61077392 0
-0.15499127 0.83489054 0.61077398 0
-0.14508162 0.83488619 0.61077404 0
-0.13508032 0.83506858 0.61077327 0
-0.12493237 0.83493459 0.61077321 0
-0.11495624 0.83490342 0.61077315 0
-0.10501824 0.83498824 0.61077297 0
-0.095067501 0.83506286 0.61077297 0
-0.085045852 0.83507317 0.61077297 0
-0.075025335 0.83490115 0.61077356 0
-0.065001443 0.83509123 0.61077297 0
-0.055096976 0.83501607 0.61077291 0
-0.045037985 0.8350147 0.6107738 0
-0.035027884 0.83498955 0.6107738 0
-0.025034208 0.83497983 0.6107738 0
-0.014990134 0.83498305 0.61077374 0
-0.0050983513 0.83502752 0.61077374 0
0.0051189335 0.83501846 0.61077374 0
0.014961948 0.83499926 0.61077374 0
0.024999194 0.83501136 0.61077374 0
0.035041489 0.83495033 0.61077374 0
0.045014583 0.83502245 0.61077255 0
0.054912515 0.83497655 0.61077243 0
0.064975686 0.83505249 0.61077243 0
0.075006671 0.83491009 0.61082184 0
0.085057303 0.83501041 0.61077249 0
0.09501157 0.83495349 0.61080104 0
0.10496613 0.83495712 0.61077243 0
0.11497917 0.83498877 0.61077243 0
0.12510847 0.83494246 0.61081564 0
0.13494954 0.8350361 0.61077237 0
0.14622438 0.83372736 0.61077243 0
0.15503477 0.83498657 0.61077243 0
0.16492333 0.83518422 0.61077523 0
0.17493734 0.83491534 0.61077243 0
0.18505602 0.83481598 0.61077249 0
0.19656765 0.8348608 0.61077201 0
0.20504358 0.83519542 0.61077189 0
0.21507517 0.83497036 0.61077183 0
0.22502689 0.83483934 0.61077183 0
0.23506729 0.83510864 0.61077178 0
0.24511018 0.83495188 0.61077178 0
0.2550258 0.8349613 0.61079973 0
0.26622623 0.83390033 0.61077297 0
0.2750116 0.83495712 0.61077374 0
0.28259811 0.83507526 0.61441845 0
0.40756068 0.83543658 0.61000031 0
0.41510597 0.83436233 0.61000025 0
0.42502421 0.8352375 0.61000025 0
0.43508983 0.83538038 0.61000502 0
0.44499063 0.83523768 0.61000025 0
0.45217964 0.834831 0.61000001 0
-0.44492382 0.84497941 0.61008888 0
-0.43494639 0.84505069 0.61000061 0
-0.42486176 0.84488595 0.61007565 0
-0.41492677 0.84473068 0.61000061 0
-0.40679142 0.84529811 0.61000061 0
-0.28177074 0.84494245 0.61435062 0
-0.27494305 0.84487468 0.61077434 0
-0.26505667 0.84522086 0.61077446 0
-0.25489277 0.84499538 0.6107744 0
-0.24504085 0.84476912 0.61077601 0
-0.23508926 0.8450262 0.61077446 0
-0.22510836 0.84525222 0.61077464 0
-0.2132744 0.84496742 0.6107747 0
-0.20511428 0.84494668 0.61077392 0
-0.19510338 0.84498298 0.61077392 0
-0.18508241 0.84514093 0.6107741 0
-0.17497703 0.84488696 0.61080652 0
-0.16495772 0.84513062 0.61077416 0
-0.15500262 0.84495509 0.61077416 0
-0.14497533 0.84500009 0.61077416 0
-0.13426936 0.84432817 0.61077327 0
-0.12504052 0.84489441 0.61077321 0
-0.114942 0.84490949 0.61092359 0
-0.10499913 0.84490567 0.61077297 0
-0.094972238 0.84501219 0.61077499 0
-0.084963538 0.84507751 0.61077297 0
-0.075027101 0.84501731 0.61077297 0
-0.065113887 0.84498769 0.61077297 0
-0.054903097 0.8448146 0.61077291 0
-0.044346973 0.8444562 0.61077374 0
-0.034956951 0.84498513 0.6107738 0
-0.024970805 0.845043 0.61077386 0
-0.015018001 0.84486312 0.6107738 0
-0.0049910494 0.84502316 0.61077386 0
0.0048689363 0.84505522 0.6107738 0
0.014866975 0.84496415 0.61077386 0
0.024914339 0.84498054 0.61077386 0
0.034989052 0.84505212 0.61077374 0
0.045599103 0.8444041 0.61077255 0
0.055040419 0.84502065 0.61077249 0
0.065054268 0.84501618 0.61077249 0
0.075083926 0.84500104 0.61077249 0
0.084335037 0.84539461 0.61199826 0
0.094849885 0.84505713 0.61077243 0
0.10500093 0.84499341 0.61077243 0
0.11499456 0.84500611 0.61079192 0
0.12497325 0.84493792 0.61077243 0
0.13496378 0.84497511 0.61077243 0
0.14483733 0.84496003 0.61077243 0
0.15563561 0.84430647 0.61077231 0
0.16498253 0.84508407 0.61077225 0
0.17505124 0.84494865 0.61077225 0
0.18510674 0.84495223 0.61077225 0
0.19503 0.84518278 0.61077225 0
0.20552541 0.844482 0.61078089 0
0.21485527 0.84497452 0.61077178 0
0.22485833 0.8448801 0.61077178 0
0.23481825 0.84498882 0.61077178 0
0.24499457 0.84498394 0.61077207 0
0.25500533 0.84507763 0.6107716 0
0.26508987 0.84496439 0.61077154 0
0.27481735 0.84326243 0.61077732 0
0.2829026 0.84376121 0.61711872 0
0.40823472 0.84361839 0.61000013 0
0.41514254 0.84449053 0.61000019 0
0.42495459 0.84452438 0.61000025 0
0.434946 0.84512866 0.61000031 0
0.44503269 0.84545708 0.61000025 0
0.4518885 0.84543037 0.61000007 0
-0.4449861 0.85506296 0.61000067 0
-0.43498558 0.85494709 0.61000061 0
-0.42491537 0.85483998 0.61000061 0
-0.41495261 0.85408694 0.61231458 0
-0.40671554 0.85505658 0.61000061 0
-0.28133053 0.85101056 0.61672056 0
-0.2750245 0.85113001 0.61500061 0
-0.26497847 0.85117418 0.61496711 0
-0.2550773 0.85117197 0.61505944 0
-0.24505258 0.85118026 0.61492097 0
-0.23494065 0.85120058 0.61479348 0
-0.22496347 0.85124475 0.61495233 0
-0.21363908 0.85128844 0.61626852 0
-0.20499656 0.85128194 0.61500007 0
-0.19494118 0.85126513 0.61485451 0
-0.18511023 0.85131729 0.6149174 0
-0.17503572 0.85130799 0.61487448 0
-0.16508086 0.85136354 0.61512667 0
-0.15477479 0.85136616 0.61483163 0
-0.14498015 0.85138923 0.61485577 0
-0.13334985 0.85142773 0.61491889 0
-0.1250273 0.85142314 0.61478597 0
-0.11508844 0.85143137 0.6149826 0
-0.10496709 0.85143727 0.61500812 0
-0.095050529 0.85149801 0.61497456 0
-0.084913395 0.85151863 0.61492014 0
-0.074898332 0.85150421 0.61484385 0
-0.065014713 0.85151422 0.61481023 0
-0.055203628 0.85154092 0.61487448 0
-0.044910394 0.85161227 0.6150142 0
-0.035010487 0.85160685 0.61489618 0
-0.024994267 0.8516258 0.61487222 0
-0.014950849 0.85162801 0.61491001 0
-0.0050274874 0.8516348 0.6148299 0
0.0049927356 0.85169137 0.61493266 0
0.015137037 0.85169142 0.61487216 0
0.025086889 0.85172206 0.61491632 0
0.035128515 0.851717 0.61484551 0
0.044844326 0.85175961 0.6148836 0
0.054953884 0.85175598 0.6148445 0
0.065025702 0.85178268 0.61487246 0
0.075034864 0.85178691 0.61490589 0
0.084953815 0.8518095 0.61483228 0
0.09493833 0.85184717 0.61488658 0
0.10486667 0.851843 0.61488545 0
0.11489741 0.85189933 0.61491942 0
0.12508057 0.85187626 0.61477405 0
0.13496888 0.85189503 0.61475694 0
0.14494431 0.85191071 0.61481965 0
0.15513283 0.85196698 0.61491048 0
0.16507772 0.85201102 0.61471426 0
0.17494734 0.85196811 0.614824 0
0.18492682 0.85197002 0.6149348 0
0.19481802 0.8520273 0.61489117 0
0.20492306 0.85207492 0.61478722 0
0.21509609 0.85203755 0.61490786 0
0.22514534 0.85203278 0.61485785 0
0.23511295 0.85201484 0.61482191 0
0.24496667 0.85209882 0.61483991 0
0.25498551 0.85219496 0.61473811 0
0.26495215 0.85221469 0.61477065 0
0.27486807 0.85223323 0.61468971 0
0.28174025 0.85213822 0.61726534 0
0.40756208 0.8555485 0.61000085 0
0.41688564 0.85480994 0.61000037 0
0.42495257 0.85465181 0.61000025 0
0.43502086 0.85454893 0.61000031 0
0.44497436 0.85462224 0.61000031 0
-0.44490299 0.86512834 0.61000067 0
-0.43486342 0.86502343 0.61000067 0
-0.4248732 0.86515105 0.61000073 0
-0.41515651 0.86495763 0.61000061 0
-0.40651602 0.86616647 0.61000061 0
0.40741876 0.86497879 0.61000085 0
0.41681612 0.86490464 0.61000025 0
0.42503005 0.86484975 0.61000031 0
0.43497553 0.86468667 0.61000031 0
0.44424605 0.86412382 0.61000037 0
-0.44501191 0.87503892 0.61000073 0
-0.43501797 0.87524492 0.61000073 0
-0.42496985 0.87513626 0.61000085 0
-0.41488639 0.87515867 0.61000073 0
-0.40679824 0.87483865 0.61000079 0
0.41566542 0.87554109 0.61000025 0
0.42502624 0.87495327 0.61000031 0
0.43505043 0.87514132 0.61000031 0
0.44412807 0.87584019 0.61000031 0
-0.44514403 0.88498801 0.61000073 0
-0.43515831 0.88500941 0.61000073 0
-0.42485934 0.8851735 0.61003381 0
-0.41510057 0.88508493 0.61000103 0
-0.40735427 0.88508034 0.61000079 0
-0.39653507 0.88719279 0.61000001 0
0.40746486 0.88803107 0.61000103 0
0.41518989 0.88516104 0.61000031 0
0.42511663 0.88534367 0.61000037 0
0.43494567 0.88548011 0.61000037 0
0.44481617 0.88521338 0.61000037 0
0.45394063 0.88886678 0.61000001 0
-0.44514626 0.89500695 0.61000079 0
-0.43489751 0.8950609 0.61000073 0
-0.42495966 0.89505529 0.61000085 0
-0.4150354 0.89482385 0.61000091 0
-0.40714732 0.89523214 0.61000079 0
-0.39597362 0.89857024 0.61000001 0
0.40749627 0.89521313 0.61000103 0
0.41542435 0.89557379 0.61000037 0
0.42502865 0.89530933 0.61000037 0
0.43507037 0.89468747 0.61000037 0
0.4450801 0.8945381 0.6101293 0
0.45179915 0.89358199 0.61000001 0
-0.44482788 0.905029 0.61000085 0
-0.43501419 0.90498894 0.61000091 0
-0.42494696 0.90505266 0.61000091 0
-0.41495386 0.90510768 0.61000091 0
-0.40773398 0.90501571 0.61160845 0
-0.39762127 0.90508723 0.61000001 0
0.414913 0.90501606 0.61000037 0
0.42489633 0.90451956 0.61000037 0
0.43492603 0.90482777 0.61000043 0
0.44414783 0.90564257 0.61000037 0
0.45183343 0.90435648 0.61000001 0
-0.44503802 0.91501981 0.61000091 0
-0.43496022 0.91518146 0.61000091 0
-0.42504001 0.91494501 0.61000091 0
-0.41484064 0.91493523 0.61000091 0
-0.40727797 0.91510016 0.61000079 0
-0.39768752 0.91452628 0.61000001 0
0.41504711 0.91455477 0.61000043 0
0.42499065 0.91499203 0.61000037 0
0.43499023 0.91514695 0.61000043 0
0.44490772 0.91526842 0.61000043 0
-0.44495931 0.92506921 0.61000091 0
-0.43511695 0.9248479 0.61000091 0
-0.42476672 0.92501718 0.61000091 0
-0.41520587 0.92492598 0.61000091 0
-0.40735722 0.92483622 0.61000085 0
-0.3977223 0.92289525 0.61000001 0
0.41508612 0.92502385 0.61000043 0
0.42491594 0.9251979 0.61005408 0
0.43491083 0.92509365 0.61000037 0
0.44510573 0.92472041 0.61000049 0
-0.44507128 0.93516427 0.61000091 0
-0.43498459 0.93486893 0.61000097 0
-0.42493448 0.93493998 0.61000091 0
-0.41495219 0.93510836 0.61000097 0
-0.40740842 0.9335295 0.61000073 0
-0.39841697 0.93183023 0.61000001 0
0.41531149 0.93545884 0.61000049 0
0.42709029 0.93590856 0.6112237 0
0.4351368 0.93471825 0.61000037 0
0.44499892 0.93511009 0.61000049 0
-0.44505119 0.94482529 0.61000091 0
-0.4349145 0.94513988 0.61000097 0
-0.42541826 0.94270122 0.61226112 0
-0.41489357 0.94495934 0.61000097 0
-0.40745857 0.94468355 0.61000091 0
0.41513452 0.94488513 0.61000043 0
0.42488471 0.94475734 0.61000049 0
0.43498164 0.94520253 0.61000049 0
0.44500318 0.94496554 0.61000055 0
-0.4441219 0.95428789 0.61000097 0
-0.43502894 0.95524073 0.61000097 0
-0.42610154 0.95375359 0.61185217 0
-0.41492325 0.9550873 0.61000109 0
-0.40688536 0.95300031 0.61000085 0
0.41617447 0.95351422 0.6100018 0
0.42516124 0.95332742 0.61000055 0
0.43570289 0.95432174 0.61000055 0
0.44407734 0.9539901 0.61000061 0
0.41958633 0.96358001 0.61000001 0
0.42508683 0.96161854 0.61000001 0
-0.28076351 -0.85120338 0.62509698 0
-0.27493456 -0.85124177 0.62500703 0
-0.26504448 -0.85122204 0.62502694 0
-0.25377274 -0.8512134 0.62371361 0
-0.24498749 -0.85118449 0.62489301 0
-0.23514254 -0.85116404 0.62499303 0
-0.22500873 -0.85114402 0.62500191 0
-0.21488729 -0.85112464 0.62494671 0
-0.20494699 -0.85110533 0.62493914 0
-0.19504201 -0.85108596 0.62491387 0
-0.18501219 -0.85106534 0.62500989 0
-0.17439406 -0.8510527 0.62432158 0
-0.16497554 -0.85102761 0.62498325 0
-0.15486114 -0.85100871 0.62488067 0
-0.1448777 -0.85098761 0.62502205 0
-0.13511671 -0.85097057 0.624991 0
-0.12494832 -0.85094911 0.6249485 0
-0.11500011 -0.85092908 0.62500113 0
-0.10505799 -0.85091037 0.62491256 0
-0.095087618 -0.85089034 0.62495166 0
-0.083732724 -0.85087866 0.62390232 0
-0.075001769 -0.85085124 0.62494326 0
-0.065060332 -0.85083121 0.62498289 0
-0.055170495 -0.850811 0.62506235 0
-0.045080084 -0.85079145 0.62503874 0
-0.034999605 -0.85077304 0.62489635 0
-0.024948522 -0.85075176 0.62504548 0
-0.013770607 -0.85074091 0.62377679 0
-0.0049785776 -0.85071021 0.62502241 0
0.0050976155 -0.85069036 0.625018 0
0.014982486 -0.85067141 0.62497741 0
0.024873961 -0.85065186 0.62498045 0
0.034959085 -0.85063154 0.62503719 0
0.045155112 -0.85061151 0.62501973 0
0.054896198 -0.85059243 0.62502182 0
0.064997517 -0.85057366 0.62490779 0
0.075024009 -0.85055244 0.62506402 0
0.084999278 -0.85053331 0.62501395 0
0.095774896 -0.8505193 0.62441784 0
0.10502563 -0.85049707 0.62500989 0
0.1148841 -0.85047609 0.62500012 0
0.12501422 -0.85045642 0.6249733 0
0.13510624 -0.85043555 0.62507123 0
0.14487627 -0.85041666 0.62504184 0
0.15499938 -0.85039806 0.62490952 0
0.16501836 -0.85037625 0.62511796 0
0.17508923 -0.85035819 0.62494743 0
0.1849224 -0.85033768 0.62506282 0
0.19611335 -0.85032928 0.62379432 0
0.2049388 -0.85030001 0.62502825 0
0.21501657 -0.8502804 0.62501401 0
0.22502689 -0.85026073 0.62500507 0
0.23494348 -0.8502413 0.62502134 0
0.2449373 -0.85022354 0.62502819 0
0.25497144 -0.85020244 0.62495399 0
0.26497918 -0.85018194 0.62503397 0
0.27487221 -0.8501631 0.62497705 0
0.281708 -0.85014838 0.62514079 0
-0.28132725 -0.84469444 0.62506741 0
-0.25821072 -0.84837556 0.6242466 0
-0.24720035 -0.84547222 0.62104774 0
-0.23801424 -0.8456732 0.62316209 0
-0.22489077 -0.84832597 0.62558526 0
-0.20366229 -0.84702522 0.62964404 0
-0.19591896 -0.84773743 0.62531686 0
-0.17672923 -0.84821302 0.62377083 0
-0.16336897 -0.84694892 0.62485641 0
-0.15939453 -0.84262657 0.62015104 0
-0.13988791 -0.84765345 0.62349021 0
-0.12597182 -0.84686482 0.62373722 0
-0.11587612 -0.84165639 0.6214211 0
-0.10667259 -0.84848511 0.62228835 0
-0.097760595 -0.84745026 0.62245178 0
-0.084276669 -0.84573519 0.62531388 0
-0.063942574 -0.84264421 0.62062991 0
-0.046447434 -0.84891772 0.62809765 0
-0.039063577 -0.84304023 0.62047577 0
-0.019199077 -0.8483876 0.62921041 0
-0.0039715217 -0.84479505 0.62459111 0
0.026907165 -0.84304076 0.62317038 0
0.067783304 -0.84485483 0.62997127 0
0.073332742 -0.84610373 0.62423307 0
0.084858015 -0.84971291 0.62866819 0
0.093230821 -0.84703636 0.62232959 0
0.11448919 -0.84711856 0.62841475 0
0.12649328 -0.84222603 0.62125045 0
0.13914227 -0.84744346 0.62565202 0
0.16642877 -0.84553206 0.62806392 0
0.18559772 -0.84363991 0.62475252 0
0.19624119 -0.84436095 0.62616736 0
0.20469058 -0.84431052 0.62390143 0
0.23379731 -0.84424651 0.62380588 0
0.25422472 -0.84496075 0.62336016 0
0.27799666 -0.84217596 0.6263904 0
0.28346008 -0.84515715 0.6252352 0
-0.28209847 -0.83502656 0.6254499 0
0.28344876 -0.83529043 0.62489617 0
-0.28196928 -0.82527333 0.62543774 0
-0.27939969 -0.82041198 0.62253559 0
0.28342333 -0.82471818 0.62506211 0
-0.28137782 -0.81550348 0.6253956 0
-0.27374327 -0.81825316 0.6213696 0
0.28340736 -0.81518382 0.62492275 0
-0.28140986 -0.80511904 0.62481004 0
-0.27866995 -0.80760306 0.62171549 0
0.27893502 -0.80790061 0.6210649 0
0.28339872 -0.80461341 0.62424451 0
-0.28142765 -0.79494435 0.62491959 0
0.27999592 -0.79439306 0.62673283 0
0.28336781 -0.7951948 0.62485945 0
-0.2814458 -0.78498876 0.62498701 0
-0.27748168 -0.78459996 0.6244846 0
0.27983546 -0.78921372 0.6293661 0
0.28334194 -0.78504789 0.62514538 0
-0.28146458 -0.77515358 0.62501234 0
0.28332752 -0.7749337 0.62488449 0
-0.28148222 -0.7654106 0.62508518 0
0.28325886 -0.76773787 0.62762213 0
-0.28143644 -0.75789881 0.62746739 0
-0.29287136 -0.56007969 0.62255049 0
-0.28496045 -0.56006378 0.62512952 0
-0.27501899 -0.56004798 0.62523699 0
-0.26501068 -0.56002378 0.62522829 0
-0.25569001 -0.56000555 0.62477481 0
-0.24483402 -0.56001127 0.62461555 0
-0.23493902 -0.56001383 0.62523758 0
-0.22924352 -0.56000137 0.6250903 0
-0.21726492 -0.56453568 0.62585151 0
-0.13599125 -0.56388825 0.62360036 0
-0.12003147 -0.56274509 0.62211096 0
-0.089452446 -0.56223649 0.62978679 0
-0.033526756 -0.56257558 0.62659228 0
-0.025647692 -0.56293589 0.6231128 0
-0.0098184571 -0.56181961 0.62919378 0
0.0012381859 -0.56308514 0.62901711 0
0.023288801 -0.56034935 0.62954336 0
0.041984268 -0.56209832 0.62340838 0
0.06902793 -0.56179988 0.62015462 0
0.073355518 -0.56247419 0.62061304 0
0.10011073 -0.56199068 0.62189204 0
0.12671821 -0.56088066 0.62456381 0
0.14422108 -0.5608958 0.62798661 0
0.21071963 -0.56315207 0.6241318 0
0.23661861 -0.56074965 0.62342012 0
0.26574719 -0.56077403 0.62903839 0
0.2766583 -0.56192237 0.62243271 0
0.29240131 -0.56156904 0.62279177 0
-0.26539597 -0.55663729 0.62063217 0
-0.25139907 -0.55999613 0.62470621 0
-0.24485651 -0.55998415 0.62484455 0
-0.23434593 -0.5599643 0.62568939 0
-0.22495146 -0.55994582 0.62498492 0
-0.215 -0.55992627 0.62500072 0
-0.20494647 -0.55990654 0.62513852 0
-0.19384287 -0.55988514 0.62618852 0
-0.18500462 -0.55986804 0.62496626 0
-0.17498501 -0.55984831 0.62499392 0
-0.16495796 -0.5598284 0.62504113 0
-0.15505306 -0.55980909 0.62505049 0
-0.1450617 -0.55978936 0.6251148 0
-0.13495925 -0.55976951 0.62500966 0
-0.12326581 -0.55974513 0.62498194 0
-0.11510382 -0.55972874 0.62493742 0
-0.10492759 -0.55851334 0.62448078 0
-0.095107459 -0.5596894 0.62501562 0
-0.085018136 -0.55966949 0.62495136 0
-0.074972168 -0.55964983 0.62489939 0
-0.065083385 -0.55963027 0.62509382 0
-0.053359512 -0.55960721 0.62494737 0
-0.044854715 -0.55959046 0.62502062 0
-0.034894787 -0.55957091 0.62494242 0
-0.024942031 -0.55955124 0.62497056 0
-0.01506797 -0.55953121 0.62503552 0
-0.0033267618 -0.55951017 0.62509584 0
0.005003613 -0.55949408 0.6249221 0
0.015040299 -0.55947435 0.6250307 0
0.024861163 -0.5594551 0.62504375 0
0.034981035 -0.55943519 0.62488985 0
0.044958692 -0.55941564 0.6252616 0
0.054964762 -0.55939597 0.62471086 0
0.066626124 -0.5593732 0.62505674 0
0.074957378 -0.55935705 0.62501734 0
0.08502771 -0.55933726 0.62491864 0
0.094952621 -0.55931771 0.62509668 0
0.10511206 -0.55926013 0.62491965 0
0.11499669 -0.55927837 0.62508261 0
0.12509525 -0.55925864 0.6249693 0
0.1349822 -0.55923903 0.6250639 0
0.14495853 -0.55916923 0.62491703 0
0.15495297 -0.55920005 0.62516385 0
0.1648663 -0.55918032 0.62495661 0
0.17493498 -0.55916089 0.62506139 0
0.18495753 -0.55914181 0.62502718 0
0.19499333 -0.5591222 0.6250245 0
0.20498121 -0.55909473 0.62494969 0
0.21500345 -0.55908287 0.62496561 0
0.22501722 -0.55906326 0.62507105 0
0.23501925 -0.55904257 0.62500489 0
0.24498466 -0.55902296 0.6250006 0
0.25499576 -0.55900329 0.62499607 0
0.26503152 -0.55894762 0.62502205 0
0.27502835 -0.55896389 0.62502384 0
0.28503174 -0.55890447 0.62489909 0
0.29359019 -0.55892766 0.62283719 0
0.30028665 -0.55885661 0.62139601 0
0.51171887 -0.3033036 0.62020659 0
0.52000165 -0.30633736 0.62006724 0
0.52092528 -0.29688349 0.62000138 0
0.52517235 -0.26089227 0.62007999 0
0.53072059 -0.22599956 0.62007725 0
0.53255367 -0.21868408 0.62005198 0
0.55608875 -0.15980422 0.6201396 0
0.5001533 -0.035091963 0.62005353 0
0.51577866 -0.020084914 0.62013483 0
0.5205695 -0.016113067 0.6200273 0
0.57181317 0.029389154 0.62001508 0
-0.29248762 0.55986571 0.62240362 0
-0.28501317 0.55987865 0.62504566 0
-0.27499655 0.5599004 0.6248855 0
-0.26495773 0.5599221 0.62502748 0
-0.25499168 0.55994368 0.62501669 0
-0.24499714 0.55994922 0.62491035 0
-0.23500736 0.55998695 0.62502718 0
